# 3D point list with one line of data per point:
#   POINT3D_ID, X, Y, Z, R, G, B, ERROR, TRACK[] as (IMAGE_ID, POINT2D_IDX)
# Number of points: 407, mean track length: 4.6432341650671782
4008 10.418995937961789 5.9474687333120562 26.475116317830292 163 156 154 1.113224418132722 2 5578 1 4313 6 6192
4006 -11.070926093926534 -0.31997246705809951 21.672684986109477 82 38 37 0.57404170647976915 7 6114 2 5535 1 4285
4005 -11.070926093926534 -0.31997246705809951 21.672684986109477 82 38 37 0.57404170647976915 7 6115 2 5534 1 4284
4004 9.3778003669765191 0.59887089418222916 28.873781673153175 100 90 94 0.29427659598665873 7 6057 2 5485 1 4229
4003 -6.0067389986589959 4.5759604314878182 13.974366579141826 216 197 209 2.8667818463434922 7 6030 2 5469 1 4253 6 6141
4002 -6.3274710478716774 -1.6721301734886653 29.346351160093874 173 150 151 1.5442460782879854 7 5953 2 5415 1 4174
4001 10.177991170626729 -2.4018656912076111 30.237771661841926 163 151 151 0.20320849307409813 7 5946 2 5413 1 4118
4000 10.177991170626729 -2.4018656912076111 30.237771661841926 163 151 151 0.20320849307409813 7 5945 2 5412 1 4119
3999 13.442044840330546 10.809424738984179 21.513622800970349 50 34 32 2.3260454479668122 3 6028 4 4273 2 5382
3998 13.078770156391581 -2.5683428796814183 25.684374847038768 53 43 39 1.2458124972147619 3 6061 7 5872 2 5334 1 4033 6 5949
3997 13.042486511498955 9.6680364418065352 21.097596114098906 13 10 4 1.8343863520527954 3 5935 7 5836 2 5300 1 4100 6 5996
3996 13.560274460825502 5.7617495026612211 23.415908629262848 33 41 27 0.80439820995561595 7 5787 2 5268 1 3972
3995 -7.8669958624523346 4.9223817508502137 11.291659471726568 12 0 2 1.8076406940544902 3 5498 7 5568 2 5206
3994 11.937419011645147 7.6957105361617915 21.277241340172715 53 62 45 0.87816283496727543 3 5654 2 5168 1 3893
3993 9.0985304935057645 0.53776763274479789 28.988173353808229 107 82 79 0.63998866154804124 7 5656 1 3827 3 5319 6 5879
3992 -4.0665140621870819 7.008092551609864 12.440027643065873 172 79 72 0.57604232968687541 3 5505 7 5590 2 5078
3991 7.9892880255025833 13.100045465596429 26.381607122872545 82 116 109 1.1622020635087642 7 5586 2 5073
3990 5.9418983476925149 2.0633581391708891 27.02048762112339 57 66 91 0.38996995742457163 7 5470 2 4966 6 5595
3989 18.498818394919493 -13.515271003749509 32.060812440991505 62 62 57 1.0814276041711368 4 3377 5 4879 2 4915 1 3581
3988 12.00235614966792 9.4594002461872755 21.665725923625178 1 0 0 0.54381142234672253 4 3609 7 5345 2 4842 1 3546 6 5196
3987 12.804353441140165 6.173997228899573 22.986176568236548 86 87 79 0.78947166964324555 3 5374 4 3119 2 4748
3986 4.889640473920986 4.1544854192370675 27.927426600199013 46 54 72 0.64398346042424137 7 4850 2 4740 1 3016 6 3733
3983 6.9124472787612605 1.6501740354558538 25.878626516910657 104 62 57 1.0396994246109739 3 4951 7 5197 2 4698 1 3348
3982 5.8898308023017556 -3.6404749962049787 31.827099816862535 152 123 119 0.3463542624105615 3 5570 2 4672 1 3299
3981 5.8271722899544267 -6.3977867625792157 31.449089427298251 195 171 169 0.54644421502535712 5 4910 2 4645 6 5283
3980 17.732700513222781 -13.495386007203235 31.674099700027728 45 45 41 0.70888659959421929 4 2923 5 4470 2 4629 1 2808 6 4783
3979 -3.7036329148414504 7.9917662100721909 17.983922440781015 17 0 1 0.48136010745411689 7 5051 2 4589 1 3570
3978 12.396831591969587 10.042794223380938 21.463353179291669 29 26 19 0.1730989057388379 7 4569 2 4549 1 3226
3977 12.875446829052406 9.6141495209406109 21.276563966427723 30 29 22 0.60636026621976979 3 5126 7 5037 2 4522 6 5211
3976 12.469674055352007 9.4885776304874625 21.577501134374049 1 0 0 0.54013482013644099 4 2764 8 4138 2 4516
3975 14.325020756596645 10.65220669732969 33.862728358475316 15 0 0 1.1947447328164751 5 4712 2 4488 1 2608 2 4043
3974 11.837100137234412 8.2618453949831636 21.304036248340516 0 5 0 0.28694037675620548 7 4982 2 4474 1 3165
3973 11.811450414541705 8.2604297984607946 21.258296674506557 0 5 0 0.92856401797301602 5 4305 7 4981 2 4473 8 3504 1 3164
3972 -5.0401355963090859 2.8745706542862117 23.585667377308607 56 53 61 0.11056096507264467 7 4317 2 4393 1 3026 6 5029
3971 -4.1032677915942966 0.58013918930298869 25.252089256335932 7 0 0 0.21797601377012751 4 3086 2 4344 1 2998
3970 2.6946748805210747 1.3121785063163087 32.279362501777925 136 124 126 0.60750529230309558 7 5204 2 4342 1 3351
3968 -12.560256129604017 -8.151493027263248 26.543622801765338 200 185 193 0.48844373700024651 5 4539 2 4265 1 2874 6 4845
3967 -12.856146609140948 -8.1376274763602101 25.968429790798826 195 182 190 0.17957156419591519 4 2992 2 4264 1 2870 6 4843
3966 3.2217232870199859 -8.0165270437316067 30.980636418454381 168 133 120 0.18389576409795694 3 5258 2 4210 1 3271 6 5262
3965 4.3054483988689363 12.623542078174065 26.048516378493328 139 133 131 0.70006856071139156 4 2852 2 4151 6 4769
3964 12.087918661391106 9.4948537044371779 21.572609991161833 36 24 24 0.19440107761704975 4 2769 2 4079 1 2753 6 4055
3963 13.660419276655668 11.41857524476892 34.267349591251396 51 50 47 0.85021309891458907 7 3799 2 4069 1 2641
3962 -9.8807787370880433 2.9778631334846386 16.516291702646143 194 168 176 0.55112224931884479 7 4359 2 3997 1 2577 6 5104
3960 14.313785515548116 7.9949564996885636 21.256814221224339 52 77 48 0.41268003512619256 4 1922 2 3966 6 4655
3958 8.2830328904654653 5.9018639012465819 28.854636067444009 74 73 76 0.42329346283428765 4 2564 2 3906 1 3031 6 3761
3957 -5.7663664929174603 1.6386081348789758 25.182964168732699 113 100 110 1.180702273499203 7 4290 2 3869 1 3008 6 5000
3956 1.5084169389409268 -0.28381259529414021 31.732346810242493 141 116 120 0.59803300616243538 5 4062 2 3812 1 2392 6 4382
3955 6.0861963053898904 1.0560385488782678 26.303886032897339 0 2 14 0.76058633797972153 3 3676 2 3806 1 1667 6 3681
3954 3.2197496559862162 -2.0156029301524661 31.710855050174281 171 141 140 0.21794169410600284 4 2434 2 3770 1 2349
3953 -0.21698465494318175 -2.8553246117046074 31.116611829223707 183 149 143 0.11459016450667017 5 4016 2 3766 1 2930 6 4904
3952 6.7015362145240926 -1.0911449480308131 25.839545486880333 55 63 91 0.50509129944519593 3 4351 8 3889 2 3741 6 4333
3951 6.0940797108516804 -3.862735720737652 31.882018407212819 187 160 161 0.20260923948476103 4 2390 2 3719 1 2290
3950 -12.992639085369477 -8.9585428813885599 25.292412365897519 198 183 191 0.85490102299294435 7 4689 8 3779 2 3667 1 2839 6 4818
3949 -12.982612018832997 -8.9566182956160585 25.267939137261322 198 183 191 0.97841473548236146 8 3778 2 3666 1 2838 7 4688 6 4817 6 5267
3948 -4.623498268018392 -8.5477597980518247 30.292593693969032 196 171 165 1.6002543875357524 4 2316 2 3663 1 2841
3947 -4.8185198056662575 -8.6563499517764697 30.01468031008838 197 170 165 0.15462893465975364 4 2313 2 3656 1 2210
3946 6.7433615325165954 -6.6476048560619638 31.635714778396149 189 172 175 0.57989416329113952 8 4330 2 3644 6 4825
3945 5.9991463895417514 -8.1344732659926642 31.28595416067196 107 95 100 0.1306879001570288 7 4065 2 3617 1 2183
3944 9.8772510747016984 -14.94895301709342 30.725240811080127 59 59 59 0.33170423173196228 4 149 2 3604 1 1297
3943 13.344489661780438 14.705117178349994 24.554717673206234 29 42 35 2.044080626967808 3 3195 7 4640 2 3573
3942 -3.5415542549286401 7.1905946068845239 12.326891868376649 80 75 74 0.63952100412798973 3 4085 7 3980 2 3565
3941 4.1073364201015581 12.705392776418483 25.94386316067374 83 112 103 0.75610556379559346 5 2979 8 3653 2 3559
3940 3.7458592664659882 12.600838912570595 26.078759278318262 86 113 104 0.5151812113269254 3 3152 5 4436 2 3558
3939 9.7238158182787267 10.022726772663448 20.748553059894515 125 64 62 0.51197804968936622 3 3124 7 3012 2 3515 1 2793 6 4109
3938 10.348788609511937 10.10637644593961 22.734588751987587 10 36 20 0.75316475230952185 5 3744 2 3503 8 3577
3937 12.355968628210348 10.063795443383249 21.000879948993695 1 1 0 0.5524759344638368 7 3942 2 3501 1 1267
3936 5.0630055163422281 7.2817387725198399 29.34223236491939 101 96 95 1.261047743043298 3 3850 4 1891 5 3499 2 3376
3935 14.278913122742594 8.0765416959608363 21.273129972972157 27 51 23 0.13395658681705044 5 2765 8 1298 2 3351
3934 14.225597657816147 8.0725113178179235 21.394433480028582 44 68 39 0.66620716643639122 5 2760 7 2839 2 3349
3933 -3.9466870570633477 4.4616893741797208 26.357670863082088 10 4 10 0.2646607468921543 7 4341 2 3334 1 2507 6 5039
3932 -4.0522249885324708 3.6914953022571098 23.884828649534171 141 133 141 0.4051367182260513 7 4328 2 3303 1 3038
3931 -11.486987970926803 1.6907684161769825 19.849281360656828 51 39 41 0.41678885664195292 7 3575 2 3286 1 2496 6 4491
3930 11.964515531160819 6.7996622192338352 23.768406377802194 113 106 86 0.61386383996095362 3 1194 7 2684 2 3281
3929 -11.412607612075849 1.5548862726775725 19.267937636463031 107 96 100 1.3741306975954679 3 3772 7 4306 2 3276
3928 -6.0146598480279128 2.7342405047866456 24.328047726777843 113 105 113 0.36720487583971845 7 2518 2 3263 1 714
3927 -11.58269597328535 1.4055997893401493 19.840716266825275 149 132 135 0.2792270525337695 7 3567 2 3261 1 2491 6 4482
3926 15.321998857787019 7.5154126192904727 32.947729647925804 91 76 67 0.38901585962648344 3 2725 2 3257 1 1779
3925 15.166929565415384 6.9809228979480569 21.606894668005292 120 107 83 0.31227295484202172 3 2792 2 3241 6 2942
3924 12.119639797705904 6.2603970406773612 23.417905498009524 35 53 25 0.35481892186895819 3 3793 2 3237 6 3826
3923 -7.5758487553155689 1.3671338614587023 12.300180029606317 63 13 14 0.75528904216700943 3 2728 7 4304 2 3208 1 3406
3922 -9.8486883026970151 0.61572625050912277 17.557738245140079 81 29 35 0.56943695403687566 7 3533 2 3200 6 4465
3921 -1.5309054194153879 0.12329447786932762 31.439800452290388 152 117 118 0.67423265621569972 7 3509 2 3161 1 1671 8 3279
3920 -1.9321763819622679 -0.45136657553969278 31.036228500519474 166 130 138 0.23353395416164316 7 3487 2 3147 1 1651
3919 -2.18294931125887 -0.50826058852520006 31.26612996374913 174 143 147 0.5963003828915433 3 4418 2 3146 6 3642
3918 -1.0532288376887782 -0.5095582609605529 31.238899458950527 173 143 146 0.13798813174164062 3 3671 2 3142 6 3634
3916 6.0031971037299643 0.94491680470372597 26.276605775091216 60 71 89 0.34529998358949909 7 2411 2 3122 1 1666 3 3666
3915 -6.6843859928976768 -2.8414842102274536 30.389118568699168 157 128 133 0.18930774146358034 4 1650 2 3116 1 1583
3914 5.1319856091893197 -0.38690446589333471 27.131172740848363 71 77 98 0.26410806475230791 8 3926 2 3077 6 2471
3913 8.4478442594670629 -0.084118115790438014 29.152307605367962 76 53 57 0.1325489383807241 5 3329 2 3068
3912 3.3082214483719579 -2.195288555308144 31.698737260156609 148 114 112 0.22257078074354064 8 3147 2 3056 6 4327
3911 6.1171633164177797 -1.2349617622134614 25.969652457817691 79 87 115 0.64432838570383266 7 3382 2 3026 1 1549
3910 2.8620717674388625 -3.6100804937040025 31.453522507958436 178 146 143 0.21613970175695654 7 3352 2 3020 6 4269
3909 -0.087015480963774094 -4.2763046656738233 30.904128600516106 190 161 159 0.23154979550735677 4 1555 2 3018 6 3485
3908 -14.199676031951716 -7.3813138752496723 24.213866832354793 188 176 182 0.40636227953012483 8 3857 2 2972 6 3413 5 1993
3907 0.68789291338293457 -5.5291426029659672 30.9467520900088 172 137 130 0.42220290011408601 5 3190 2 2966 1 2271 7 4152 6 3444
3906 -14.210873792856576 -7.4813667097699197 24.1048771814879 149 136 142 0.19406571584638815 7 3248 2 2965 1 1431 6 4222
3905 -12.62090744147125 -7.9654947119066923 26.50130511577192 167 153 161 0.54826800108101237 5 3125 2 2948 1 1400 6 3374
3904 8.0230722330783006 -3.0718276362406693 28.302615528359432 62 47 47 0.45335405263958772 3 3490 2 2947 1 2287 6 4879
3903 7.1737278016003572 -3.5834724570434973 27.114077151973529 8 0 0 0.34763943029979893 7 2092 2 2899 6 443
3902 8.0519251801334573 -4.2317652768033138 27.332288730114108 62 47 47 0.32308842262085496 7 3261 2 2871 1 1416 6 3422
3901 2.9315804543733579 -7.1904146307801158 30.994023642200709 187 158 154 0.43546944503981294 4 1399 2 2861 1 1349 6 4160
3900 -11.146812157467453 -11.024366672582447 27.623263724223669 190 180 184 0.4669168790818537 3 4183 5 3040 2 2830 1 2173 6 4128
3899 -3.5106894691762136 8.151658874397393 17.911793245398467 51 29 32 0.36376650216460105 3 3150 5 3815 2 2725
3898 -1.3924145159091985 7.3779691781908268 22.887117041111146 14 1 3 0.1466892028984757 3 3965 7 2846 2 2651 1 1989
3897 14.372977323957613 8.7565732487844024 20.97727653430843 0 18 1 0.88977630728664481 7 3854 2 2550 6 3152
3896 6.5353422746374958 7.7644125813139624 26.808923503332903 56 38 37 0.2282720327475625 7 2749 2 2544 1 1918 6 2910
3895 -9.9436779007799245 3.1904788302940488 16.634016458632534 14 3 5 0.31646244325326051 7 1168 2 2533 1 961
3894 -9.9134080948838363 3.1858132704187354 16.85769072100361 13 4 4 0.3977785695608016 7 2628 2 2528 1 1896 6 3877
3892 12.792671618102155 7.9385129436405961 21.063921232481764 42 48 37 0.71344559437282151 3 2948 2 2475 1 1985 7 3798
3891 14.088768583480222 8.0462910880212188 21.309231976508524 74 100 69 0.28550379145009286 3 1407 2 2453 6 1638
3889 -4.2937777952819403 3.4918848666535398 23.51520581667236 121 117 128 0.24068448873768553 5 2517 2 2355 1 1776 6 2705
3888 10.019425047766463 6.3118860577174836 25.891724847069799 164 154 155 0.25175495356933408 7 2608 2 2331 1 781 6 2752
3887 15.155566517855169 7.0631590728618097 21.655529733779151 39 35 8 0.053687040584450195 8 1146 2 2298 6 1444
3886 5.150580557023348 4.2587690948709307 27.332858871459749 56 62 83 0.08948328503805468 8 1032 2 2260
3885 6.0268800300388259 4.3672826240921196 26.551302130621604 0 0 2 1.4791961434642085 4 765 2 2253 6 2666
3884 5.7405862479407119 3.8124514738494555 26.920996129043409 69 78 103 0.37479281198801501 3 3737 2 2228 6 3725
3883 -9.7825829209065365 0.54632793852962558 17.593047591146583 58 2 7 0.37109723570789599 7 2464 2 2221 1 1732 6 3728
3882 -9.7825829209065365 0.54632793852962558 17.593047591146583 58 2 7 0.37109723570789599 7 2465 2 2220 1 1731 6 3727
3881 6.4699378789241777 3.8211314994071692 26.833853182270168 90 101 127 0.26455478443166153 8 2405 2 2219 1 690 6 2642
3880 6.6757852257692356 3.8016693657750937 26.969227755353796 98 111 134 0.45082089585107105 7 2500 2 2216 6 2637
3879 6.6757852257692356 3.8016693657750937 26.969227755353796 98 111 134 0.45082089585107105 7 2501 2 2215 6 2636
3878 5.0165263262021984 2.9947915824978208 27.500735442218033 54 63 86 0.11813375987495198 3 2648 7 2476 2 2202 1 663 6 1073
3877 -3.2159883239342215 -2.2787950327376505 30.817798460921068 180 139 137 0.10739831865781235 7 2309 2 2111 6 2422
3876 -15.010679437234517 -5.4099049767490941 23.978703086129215 182 165 171 0.72863137387163412 3 3526 7 2148 2 2012 1 309 6 2261
3875 8.7795678851138401 -1.4266664662089041 31.756861025241584 153 113 115 0.78002894661298916 7 2257 2 2003 1 395
3874 6.5815062354144551 -0.99674400410780906 25.82974664636307 88 97 125 0.42615141083000141 7 3388 2 1986 1 435 6 2412
3873 0.2850862990242975 -4.6068866880236534 30.992263988380657 167 134 125 0.20756045460616102 3 3506 2 1955 6 3478
3872 1.2977593687489075 -5.0820959327574737 31.198232613026125 190 159 151 0.075457044963193678 5 3200 2 1922 1 241
3871 -14.130571855726147 -7.4672168895884266 24.274887829700695 151 138 146 0.33489158658901663 3 2190 2 1903 1 181 6 3406
3870 8.1420242561777592 -3.0695360666992642 28.248702729675134 179 165 166 0.57238033473277883 3 2246 2 1871 1 1488
3869 -2.7331666646607191 -6.86475241427779 30.39696259948871 216 188 190 0.1530731326625501 8 1943 2 1859 1 160
3868 -2.0423194885119411 -7.0149439523694799 30.354698910522142 192 164 164 0.31940181230421022 8 1928 2 1831 1 141 6 2090
3867 17.866449855356731 -13.40194490374761 31.769550935959607 75 75 72 0.70992146972395709 4 150 5 1839 2 1741 1 12 6 1945
3866 -19.602977187942638 7.7027656748847475 22.127650333676474 125 108 110 0.66611282519006265 5 1768 8 1724 2 1651
3865 -4.3361936591097452 6.8659054219036637 12.674466066164063 178 88 82 0.36412463730146993 7 3043 8 1775 2 1632
3864 11.527819722777597 8.4705072053235817 23.774384020901163 31 42 28 0.58038104611568408 7 1436 2 1402 6 3040
3863 -9.9367211292268092 3.3594167562264112 17.055868855175685 177 166 173 0.44986536264783789 7 1193 2 1400 6 1446
3862 -9.9517331308117427 3.2992066152105153 17.068435437258671 58 45 53 0.28043496971079046 7 2640 2 1385 1 958
3861 -9.9372874195405583 3.268258770466653 16.83616794567045 131 119 124 0.33910459797013454 7 1176 2 1381 1 962
3860 -11.456209044462911 3.4178794567913058 21.616178388953148 113 96 97 0.36116153732186224 7 1104 2 1363 6 1246
3859 12.231822487765486 7.9949299523316562 21.369040349048667 79 86 77 0.29022145328631693 7 1453 2 1315 6 1659
3857 3.7774321680126226 6.7494205529641427 29.541412981910593 118 106 108 0.44324139727584944 7 1207 2 1277 1 817 6 3801
3856 13.127079318690249 7.8786058161582977 20.630867511005825 60 77 51 0.20679305690769856 5 1486 7 1454 2 1275
3855 14.30864987654323 8.1641820344555391 21.188432746930808 49 78 50 0.25167147623875974 5 1477 2 1272 1 1107
3854 -11.349170722312746 2.6938498064095637 20.225515288536393 152 135 138 0.50864808920990945 3 1217 2 1257 1 778 6 1207
3853 13.229017333948763 7.4020571304080987 21.13708796685081 110 138 101 0.12461889656688846 5 1397 2 1198 6 1570
3852 -11.34077471586555 2.0064696012130945 20.369784098374272 110 98 100 0.66794802044517876 3 1132 7 1021 2 1170 6 2698
3851 14.752591046295413 7.5605479213769762 22.466296901984169 41 50 33 0.24002614547301429 7 1343 2 1157 6 1497
3850 11.808875595126702 6.8291155639017198 22.96834054441273 87 100 75 0.30970321548186819 5 1266 2 1133 8 1184
3849 10.034801223552176 6.5197783645169309 25.793508274783726 152 143 139 0.47183349878951292 7 2638 2 1129 6 1240
3848 14.584900779184713 7.1098969449316014 21.421022911983588 25 42 18 0.42026232134621622 8 1181 2 1096 5 2648
3847 -4.1677773881104319 3.0856015217144983 23.846324435228684 102 95 105 1.2731333284026487 3 1060 7 1023 2 1088 1 728 6 2678
3846 -11.625892481647062 1.2727171003210449 21.598207789522991 129 112 115 0.75681904900707231 7 3556 2 1069 1 1748
3845 12.522040568093656 6.3564971838391982 23.158533825636518 87 98 83 0.75405731208466031 7 1179 2 1054 1 831
3844 -11.73026569733595 0.62949240651050054 21.009409719310607 114 102 102 2.0017992464203598 7 961 2 1028 1 1724
3843 6.2326250632636135 4.1874514624205323 26.767303740827572 0 1 7 0.13145684153053794 8 1024 2 989 6 1097
3842 6.2326250632636135 4.1874514624205323 26.767303740827572 0 1 7 0.13145684153053794 8 1023 2 988 6 1098
3841 6.7199401815647652 4.1708303067418582 26.965110018134737 57 66 86 0.26972424308287873 3 2682 7 998 2 969 6 2651
3840 6.6279066171117291 4.0088130754885176 26.856744450067033 34 43 66 0.24515963460338894 7 990 2 962 6 2645
3839 -3.8311454769867748 1.1744126418510143 26.021517711476704 90 49 54 0.21914365791428447 7 948 2 947 6 1060
3838 2.2747078285173132 0.67835716325921624 31.867287162238043 161 133 134 0.30626656363190669 3 958 2 894 1 610 7 2428 6 1000
3837 -10.212241057262467 -1.2679214447435194 21.986458111739651 128 79 82 0.74041519037713011 3 2608 8 965 2 893
3836 -2.4354694626439333 -0.55762394677981253 31.14176502987393 110 75 78 0.048627113911867172 3 939 2 887 6 945
3835 -6.4866637647160124 -1.7289744794916557 30.508167411263727 186 160 151 0.28448424604020212 3 887 2 869 6 872
3834 0.78306409852645364 -0.32557923109403614 31.657072208984385 166 137 131 0.80882564270679069 3 912 5 951 2 863 6 927
3833 -0.35282120751343177 -0.80532183350718878 31.327509111707943 176 147 149 0.12381051628258033 5 923 2 846 6 885
3832 0.15233188337140968 -0.7716800786146143 31.487139732651958 172 148 149 0.20363671921067419 5 919 2 843 6 880
3831 0.26019963895579989 -0.83355508945440393 31.498453797189789 140 113 114 0.23387053188019838 8 806 2 839 6 868
3830 3.9905058355407208 -0.26315525902750964 31.971647970877619 124 99 100 0.14133173039123589 7 836 8 783 2 811
3829 1.6907896953017154 -1.1366752208711832 31.570748081022639 172 140 137 0.099135243635038242 8 751 2 786 6 806
3828 -0.61784131915891016 -1.6375597403270921 31.183119071979629 172 135 135 0.15594018257944675 5 822 7 757 2 784 6 792
3827 1.5053606009697735 -1.4324415000771249 31.533386024983127 176 144 141 0.28216927442264644 7 755 2 771 6 780 8 723
3826 -3.3594015044799739 -2.7450717533218296 30.7388989466053 185 148 145 0.22187806471150068 7 684 2 744 6 698 8 686
3825 -2.3454642363222513 -2.9221986558428386 30.893682881895913 187 158 154 0.19679355826335099 3 689 2 706 6 659
3824 -13.617502106009725 -4.8540751468783139 25.750429434364261 185 165 173 0.26445561701014142 5 604 2 693 1 361 6 2308
3823 -2.0490075760308768 -3.1959533664069935 30.821605334800942 176 147 141 0.45622697606156376 5 667 2 653 1 388
3822 -14.258697695057673 -5.2065856881187162 24.799597477365626 186 164 169 0.23781890386708843 7 467 2 630 1 322 6 2276
3821 0.83763790430716045 -2.9621044521274014 31.364791521094425 146 114 111 0.18148173948822757 5 639 2 605 6 2320
3820 -0.77073655773028349 -3.4690369479823326 30.852087679288893 147 106 101 0.093530244950994545 8 2100 2 581 6 560
3819 -0.83548851909461419 -3.5626768391060226 30.910832149845781 177 144 139 0.23618265358367177 5 568 2 579 6 554
3818 9.8981055106892235 -1.2176431362124855 30.112738442962993 111 101 102 0.15032693154872301 8 535 2 544 6 654
3817 6.0811065891233165 -1.4946661188015813 26.426059153848062 82 93 120 1.2051462161199034 7 614 2 531 6 672 7 585
3816 1.8069505607014347 -3.7645573415517766 31.408811275335996 183 155 146 0.20318733976610548 4 425 2 530 1 283
3815 0.66388210086065547 -4.2550813604551339 31.147738629403349 180 147 142 0.18367859868536893 7 434 2 506 6 492
3814 -0.36583480008470332 -4.5514154018780628 30.833973874320062 190 161 157 0.17218599698349615 5 475 2 494 6 478
3813 13.286014955333403 -2.5661300970432066 36.838941114847998 137 127 128 2.0354873567968519 7 521 2 484
3812 2.1684685428055444 -4.4114558759198967 31.325219057947638 181 152 148 0.15396785161965074 3 459 2 470 6 474
3811 2.6785668316578297 -4.8762415057641713 31.285579098416939 189 155 153 0.17077453826317857 3 407 2 430 6 429
3810 -13.896563442964359 -7.3770557363674314 24.668342240791283 189 176 184 0.1642769497145202 3 348 2 423 6 2128
3809 -2.5271749178362191 -6.1991173535868809 30.42726761552554 188 165 169 0.26186751939543557 8 363 2 416 6 376
3808 5.3384804841517282 -4.4890769412020282 31.649246901463513 161 134 129 0.18082258745048227 3 2235 8 386 2 412 6 431
3807 -2.3159162274089082 -6.2520069819317827 30.533044201526788 208 185 186 0.33765256604953353 3 352 2 398 6 369
3806 3.3049559078437198 -5.1360933093362213 31.352761225494081 194 160 154 0.067989783594012212 5 2040 2 383 6 2156
3805 1.0664043146470752 -5.6619467762353137 31.032186156934038 163 130 121 0.15866167714555188 8 329 2 373 6 387
3804 1.0664043146470752 -5.6619467762353137 31.032186156934038 163 130 121 0.15866167714555188 8 330 2 372 6 386
3803 9.6047393874556573 -3.5537200193663128 31.488699305204499 190 173 176 0.17027291789795007 3 2237 2 369 1 244 6 2196
3802 -12.161243874968534 -8.2104208102637521 27.032782204504908 199 184 192 0.14499335407093103 8 259 2 346 6 2073
3801 6.369790459876012 -4.7570397728088745 31.736895331886139 189 154 151 0.14173646723815106 7 338 8 314 2 343
3800 -12.47880802900305 -8.2063021243138881 26.463911440210374 198 183 191 0.30080227871711085 3 260 2 334 5 224 1 132
3799 4.8319227406539378 -5.7949286408521958 31.426697846631669 191 163 163 0.18572265012105657 8 230 2 286 6 338
3798 4.5385539399853476 -6.1542729390455406 31.297042021935582 179 152 151 0.096904879689348189 3 231 2 259 6 306
3797 1.9097238956464531 -6.8327777608955067 30.902041268590715 158 129 125 0.23155826184119502 3 210 8 1905 2 253
3796 -3.2369999879345186 -8.208977745356 30.144677352585273 162 156 151 0.14024357344868943 3 165 2 229 6 180
3795 6.5825050424583118 -5.1855335084333323 27.706480848097744 165 148 151 0.32729829964163781 3 201 4 1409 2 186
3794 -1.0375995889110849 -8.2927065037435295 30.385808275001935 200 188 188 0.2069574136408934 3 118 2 184 6 141
3793 2.448010355330815 -7.7796319320905862 30.900269705359221 195 164 158 0.22767296268581361 3 2063 2 163 6 2010
3792 1.1127948493726845 -8.0851657863761446 30.664269917388236 166 139 132 0.13259430139855513 3 2061 2 161 6 2005
3791 -0.44469047248413823 -8.4720979329689161 30.398070198791814 198 188 187 0.2595356179300457 5 109 2 156 6 117
3790 3.5397573799903732 -8.1023706030783131 31.196281396233847 197 169 167 0.35175415869647031 3 2046 2 132 1 60
3789 7.3911149936790874 -8.3411433492627882 31.38542735343205 172 160 163 0.15748788546189049 3 16 2 64 6 55
3788 13.865872529016782 -10.101277185820061 31.905727925862244 92 90 88 0.95399999617669629 4 159 2 57 1 15
3787 14.328236548053569 -10.311713556890746 31.937734910309089 59 57 53 0.38079410921204743 5 15 2 56 1 13
3786 21.027404021748449 -12.831957633409727 31.539430767038887 55 55 50 0.82548567583030541 5 5 2 44 6 7
3783 13.415903219373405 10.923293019827199 22.346563504502868 0 0 0 0.42144168849238772 3 6027 7 6042
3782 13.795078283736656 7.6947458797777397 21.425588237592489 14 15 7 1.3927569969176206 3 5650 7 5808 1 3995
3781 13.861379999039661 9.0249438444004113 20.564888812255436 31 32 21 0.80231271658720382 3 5831 7 5729 1 3911
3780 14.128851358961745 6.7613700128168892 22.460956554077462 115 83 64 0.47755605267438489 3 5622 7 5693 2 5150
3779 15.627333925965459 8.4942514822124355 21.404461929836213 54 76 48 0.78463367713976595 3 5662 7 5551 1 3899
3778 14.349769085419771 7.2083229882278941 23.725545827900969 14 21 5 1.1204085987151955 3 5626 7 5521 1 3704
3777 14.236805881284047 6.5615609530861869 23.43930050710614 126 98 75 0.56945356527699598 3 5380 7 5513 1 3867
3776 13.948570106998856 6.4269371315276498 23.299485178068064 23 37 7 0.68039378054392241 3 5377 7 5510 2 4986 1 3696
3775 13.948570106998856 6.4269371315276498 23.299485178068064 23 37 7 0.68039378054392241 3 5376 7 5509 2 4985 1 3695
3774 14.339001466355551 6.0664196721255825 23.926010278922465 17 41 13 0.71144885369377475 3 5363 7 5497 1 3683 6 5620
3773 14.495818007578045 8.5798540668533008 21.108674021448021 2 22 6 1.0636440047724607 3 5087 7 5317 2 4810
3772 14.701264968054069 8.5688608605961605 21.128444937141992 46 66 39 1.0243932134113676 3 5085 7 5315 1 3734 6 5686
3771 14.109117851842003 10.097493270662124 34.357578566785193 161 150 147 0.92575637610980599 3 5055 7 5273 2 4464 1 3444
3770 14.325975629674323 8.411602443995541 21.015298281278401 46 69 43 0.51003071152082979 3 5082 7 4986 2 4455 1 3508 6 5170
3769 14.662131390232771 8.2439489936539943 21.269330893443598 72 87 61 0.60013808997409346 3 4574 7 4969 2 4438 1 3146 4 2668
3768 13.975844824612579 11.299214431389879 34.788719935452256 84 79 76 0.60022186533901956 3 5074 7 4961 2 4501
3767 13.577646090335785 9.1811848860005849 19.298274748343644 62 112 158 0.49401474959331665 3 4006 7 4563 1 3229 6 4762
3766 13.935985865593867 9.2826283011631343 20.955068191663774 4 6 0 0.45071074443085668 3 3978 7 4538 2 3457
3765 15.437331559345335 9.3838338890116386 21.463792406825061 41 47 16 0.79773644281619993 3 3035 7 4524 1 2736 6 4714
3764 13.161530717959673 8.8955804697073333 21.013708366269491 32 28 20 0.34425775988379209 3 4618 7 4512 2 4492 1 2725
3763 13.703981500290171 8.5394403532682421 21.240238029009774 0 0 0 0.79157922815917858 3 4600 7 4493 6 4683
3762 14.638327204093912 7.9530915201242438 21.27106580855688 31 51 24 0.86453951927421002 3 4562 7 4460 2 4426 1 2669
3761 13.824077817106067 8.857282530159436 20.987206576071884 41 40 31 0.27352944437020671 3 3953 7 3869 2 4042
3760 14.060628550173277 8.7000333684520399 21.046705528085315 53 56 46 0.24599274898882359 3 3004 7 3850 2 3411
3758 13.775620604382286 8.5384977487618094 21.154312587933269 29 27 23 0.3675161696624516 3 2995 7 3838 2 3391 6 3128
3757 13.709646270623985 8.1738195701133023 21.123605747002308 34 33 24 0.328222040683044 3 2955 7 3808 1 1996 6 3096
3756 13.85098722267176 10.179112972007992 34.210562259600451 99 89 88 0.86231958013042398 3 3869 7 3743 2 3409 1 2581
3755 14.066220257864593 6.2242775794681799 21.834971075638435 51 66 52 0.43624151424332852 3 3786 7 3651 2 3220
3754 13.394589928262976 5.5428983837477519 22.618332524673654 145 143 133 0.81193833231553159 3 3761 7 3606 1 2502
3753 13.455877757322661 5.5016377004730881 22.900432777684713 54 49 40 0.27226191267232819 3 2700 7 3600 1 2500
3752 13.562861115476428 9.084219218757573 19.252037270818825 11 60 108 0.5832913582371092 3 3079 7 2984 1 1254 6 1898
3751 15.23695659311419 9.33938488488403 21.297112432864441 87 100 73 0.85345758796232707 3 1566 7 2938 1 2065
3750 13.234351021349996 9.0569761239759732 20.824757511246229 12 11 0 0.57691335016875189 3 3050 7 2934 1 1211 6 4044
3749 13.08554373475204 12.629477634231744 34.45488004360255 132 118 118 1.1906677692468484 3 1561 7 2906 1 1105 6 3032
3748 15.691462352362354 8.70452094881073 21.326979713216389 63 69 37 0.7818005774664224 3 1474 7 2888 1 2019 6 3122
3747 14.410763513275567 8.4811709467775334 20.946617608149886 0 10 0 0.50796037826143314 3 1485 7 2886 1 1151 6 3127
3746 13.225000286670571 7.8418850837225245 20.623879578344461 138 142 125 0.24733555225708465 3 1425 7 2841 1 1103 6 3085
3744 13.291333705882911 7.2726104436159096 21.206558074489713 67 97 58 0.31466383970135331 3 1293 7 2766 1 1018 6 1544
3743 14.505178084498613 6.900567497946045 21.679188687161044 18 33 7 0.41207721073238496 3 1199 7 2707 1 939 5 2620 8 2480 6 2938
3742 14.313315738676435 7.0402054956142726 23.279028745838986 95 87 71 0.28241598440875154 3 2789 7 2695 2 3255
3741 13.190083651843906 10.073593657779574 19.285999387438491 2 23 52 0.58518777042060099 3 1684 7 1716 6 1932
3740 13.267789980660167 9.6201404358632061 21.078624533896424 19 10 0 0.16109417820880459 3 3082 7 1617 1 1247
3739 14.735829543266634 7.8444869461841478 21.118720010202704 67 89 52 0.35896209852037891 3 1358 7 1407 6 3057
3738 13.140496629226726 7.3515748919143045 21.173751919161525 88 114 78 0.45109243098575202 3 1308 7 1363 1 1036 6 1561
3737 14.815811933079033 7.5241739636319682 22.524382611320391 13 24 3 0.63238061059100203 3 1260 7 1333 1 995
3736 14.909736660262443 7.1496925469423429 21.540042217850509 106 119 92 0.30566972980372548 3 2822 7 1312 1 989
3735 7.2652261497629258 5.5505300382818383 27.192042938961286 105 102 102 0.97768362665485642 3 5368 7 5229 5 4996 8 4801 4 3122
3734 -13.903612212868721 -8.7637634953504389 24.298293244588717 186 175 181 0.50463327433672533 5 4893 8 4720 4 3398 3 5265 7 4691 5 4504 4 2956 2 4233 1 3277 6 4820 1 2842
3733 2.6982697372674469 1.0512783430936865 32.223423197246071 126 101 105 0.78971305720009177 5 4096 4 1710 7 4819 4 3069 3 4958 2 3829 1 2990
3732 -14.713184150707532 -4.3413897424323418 24.283443256692571 179 161 168 0.73285316867832562 5 3290 8 2236 3 3571 7 3375 5 4021 4 2457 3 4368 1 2934 6 3545 6 4909
3731 10.785991553164525 -5.3166769770503537 27.485067083554018 191 184 187 0.58177621477560826 3 6262 5 5858
3730 2.0922140193575247 6.9617006605685212 30.81302309516974 119 119 119 0.86981117359280047 7 6149 2 5558 1 4298 6 6184
3729 -3.1121421142664905 3.2749902549780039 29.152407713463013 146 134 139 2.3887571956522691 3 6248 7 6145 2 5555 1 4307 6 6187
3728 5.9625461735046361 0.54505180670278319 27.441090772068751 1 10 26 1.3191671243248058 5 5845 7 6143 2 5554
3727 -1.8973231639475587 5.97840182809193 23.505577130754713 0 0 0 2.2708303660052018 3 6240 7 6132 6 6177
3726 -11.455691106731798 1.626506662105188 22.638874105989473 156 139 142 1.3684534457290789 3 6239 7 6131 2 5549
3725 -4.2477245759887907 6.8286824933775589 12.896709546302779 224 132 125 0.64050215013094192 3 6213 7 6096 2 5521
3724 -7.4880844322189679 5.132475399930132 11.688914664056201 167 68 56 0.45363158692043659 3 6209 7 6094 2 5517
3723 -7.4880844322189679 5.132475399930132 11.688914664056201 167 68 56 0.45363158692043659 3 6208 7 6093 2 5518
3722 2.0398316968870662 9.4847190973473161 31.612272265397131 112 112 112 2.1161841821413372 3 6179 7 6092 1 4266 6 6154
3721 4.0250188381781937 0.40758042265188277 30.579897400559133 142 123 125 1.0362719420789368 3 6168 7 6058 2 5486 1 4231 6 6073
3720 4.4252448437235747 -2.2513579431125863 30.649401230630179 165 140 141 0.9154942026328855 3 6201 7 6056
3719 2.4341900836035419 11.036326159688217 31.810785836797258 20 0 0 1.3774644039367054 3 6141 7 6034 1 4204 6 6100
3718 -5.6348855072041797 5.3056788274011044 18.871290237445372 203 121 119 0.14678273628943597 3 6089 7 6029 2 5435
3717 -14.57496635433129 -4.3473015206627679 25.085176891362366 44 53 75 0.86610030947288619 3 6127 7 6011
3716 7.4709355879802928 -1.9706481033286245 27.972927979067098 178 159 166 1.0791837080079498 3 6123 7 6009 1 4171
3715 5.6878873182622591 12.300223542196884 27.710162172557215 76 102 94 1.8061027565526804 3 6099 7 5987 2 5451
3714 4.6924665731494102 11.814193962287748 27.010995996625397 3 0 1 0.86923429610326064 3 6098 7 5986 2 5449
3713 4.6924665731494102 11.814193962287748 27.010995996625397 3 0 1 0.86923429610326064 3 6097 7 5985 2 5450
3712 -9.5902504965034634 2.5985144596718213 15.559915794769104 0 0 0 1.5006710637055738 3 6084 7 5966 1 4192 6 6090
3711 -4.322375821382634 3.8448104419418443 23.588125361484604 110 107 113 0.62072312468849655 3 6003 7 5965 1 4185 6 6081
3710 5.3758646585085872 3.9951145374403332 26.994600866981838 47 56 79 0.74408846079550739 3 6073 7 5963 2 5423 1 4047
3709 4.8002900258492662 3.3073597393257264 28.53692497814135 42 50 70 0.81552615995892508 4 4248 7 5961 2 5420 1 4134 6 6029
3708 4.2509413021798998 2.4011541644708507 29.124876105245402 104 103 107 0.87468473277540615 3 6069 7 5958
3707 12.427964992388901 3.0224252816905741 27.014926509117917 97 81 75 2.0018522096163798 7 5957 2 5417 1 4178
3706 4.9939966373267 1.9107004254156843 28.140426619540303 47 55 75 2.2760889816695649 4 4295 7 5955 1 4128 6 5959
3705 8.69894362732472 -3.2089871861437067 29.366829515503881 178 168 172 0.72770442208279096 3 6064 7 5944 2 5339 1 4168
3704 5.0076546801664588 7.4453601882836953 28.33016827682162 107 107 107 1.0500865839195392 3 6008 7 5895 2 5433 1 4064
3703 -11.281522780501573 2.7395517813383874 20.123185667973022 117 103 103 0.67578691620156794 3 6006 7 5891 2 5285 1 4142 6 6082
3702 -6.1213040322510892 3.3592735489891004 24.780358478373689 26 0 0 1.05367464789236 7 5889 2 5427
3701 -7.5264185709399518 0.85624367592198203 11.53291559942336 97 42 38 0.97105323698578905 3 5998 7 5884 2 5353 1 4139
3700 -4.0627407955316492 -9.5405934218081079 29.767066419575997 199 187 192 0.36589559767733693 4 4152 7 5867 2 5332 6 6011
3699 -7.6410215468933185 5.2833847348583323 11.143406133895454 97 32 24 0.49126914892253354 3 5853 7 5844 2 5315
3698 4.0523845157863363 11.314273083638088 26.854622283383748 164 104 99 0.47661313848943015 3 5945 7 5841 1 4098
3696 -4.4664031410926519 0.60892739078259184 25.11989684774581 67 10 11 0.40090607512878845 4 4080 7 5780 6 5882
3695 -9.2846614679133168 -0.47669751522363418 17.533645444402541 111 54 53 1.4526017632406434 3 5784 7 5776 2 5135
3694 12.734871392145617 9.5321367261150112 21.401493705514302 0 0 0 0.31074516842671379 3 5834 7 5732 1 4010
3692 -5.5566323241065394 5.0782469301325213 19.751887051086101 121 60 61 0.31854870320656059 3 5666 7 5698 2 5029
3691 12.90178114497664 5.9648384701911645 22.640470416259678 97 70 52 0.25418825065350453 3 5797 7 5689 1 3973
3690 -11.260194905982024 1.6891487130669127 20.865824373175851 176 160 161 0.97014777187696788 3 5612 7 5681 2 4995
3689 -11.470767882217954 0.52294890911506831 22.266954389393689 28 0 0 0.76416743753411198 3 5790 7 5675 2 5269 1 3842 6 5888
3688 6.222372581452368 2.1701751800067286 26.878382900709603 24 26 38 0.28167835829312016 5 5230 7 5674 2 4967
3687 -10.873805030092123 0.013266896371628381 21.552076791905797 84 31 33 0.50505357158401198 3 5787 7 5672 2 5144
3686 -9.8408446282638486 -0.24512327214866658 16.937807346994529 24 0 1 0.5958395306083768 3 5786 7 5666 6 5887 1 3963
3685 7.4015567154997637 1.6003704639309528 26.34530596427237 86 46 41 1.5069191857365409 3 5780 7 5665 2 5132
3684 4.4854087250428618 0.82943153533159641 30.328887949201004 133 116 118 1.5724858564304749 3 5894 7 5663 2 5350 1 3647
3683 -9.4710158269914313 -0.45369209273282379 17.171133460862258 25 1 5 0.33493394425255307 3 5785 7 5662 2 5136 1 3836 6 5886
3681 3.0712822899930439 11.918571954343873 27.588149358631306 55 70 66 2.0541278573714976 3 5705 7 5574 1 3919 6 5923
3679 13.026692438960337 7.8142466810223219 20.99466223148379 11 22 9 0.7284127686767019 8 4846 7 5546 1 3730 6 5457
3678 11.559770321370063 8.2877323805457568 23.72976554636692 0 0 0 0.33268541609395458 5 5274 8 4847 7 5543
3677 20.306080538147537 9.0178574977584116 26.504295532674529 83 49 31 2.6723833666359544 4 3780 7 5538
3675 -3.0049379182855418 5.1205892274905125 26.229357808940598 160 98 88 1.8532950003727511 5 5013 7 5503 2 4791 1 3860 6 5901
3674 12.584688439415917 6.0290773080518152 22.875394064882904 2 17 0 0.65803292202965402 3 5615 7 5502 2 4983 1 3691 6 5412
3673 -3.9049767766844896 4.6714891557208498 25.80021535071613 131 127 133 0.45226338328773763 3 5627 7 5500 1 3857 6 5781
3672 -4.5693070876493849 2.1234398256292577 24.466074540052382 169 161 169 0.42554525050445896 3 4985 7 5479 1 3968
3671 -7.5053845949174667 0.98290179252902887 11.840342033849101 107 48 44 1.0540490975741186 3 5605 7 5477 2 4972 1 3846
3670 -11.11117044934541 0.03545571196750303 21.992737824282404 86 33 35 1.6671318756129434 3 5349 7 5471 1 3661 6 5599 6 5762
3669 6.5737767284242796 0.75889323530872099 25.584404580109958 51 62 84 0.38711316119431044 3 5587 7 5460 2 4956 1 3644
3668 4.6648725958593769 -0.48345550632995532 30.729174458793196 145 118 120 2.1623540124094229 3 5774 7 5452 2 5128
3667 -13.043421972868696 -8.244485601616196 25.863148225338136 193 180 190 0.28903614264596356 3 5560 7 5432 1 3605 6 5548
3666 -3.8968787158559453 7.3448731520098614 11.972280133382402 250 238 243 0.55350028154997444 3 5514 7 5393 2 4904 8 4954
3665 11.755720469603363 10.081690638314278 21.77548648124294 0 0 0 0.38639673379195311 3 5144 7 5363 1 3555
3664 11.770442697600989 10.099137127215524 21.81160899828696 0 0 0 0.46126567991177564 3 5143 7 5362 2 4862 1 3554 6 5505
3663 11.96281524376796 10.002391799218254 21.878691303745295 63 55 42 0.74621618829005221 3 5470 7 5360 1 3770 6 5712
3662 12.234443288893806 9.7074439357126145 21.590666546204808 0 0 0 0.97444548766634398 3 5128 7 5354 2 4847
3661 -4.5401887619720576 5.9800634739093113 13.782073211942272 163 79 69 0.42530213873415484 3 5160 7 5350 2 4570
3659 -6.1993720487385593 4.6713248971072048 13.014952404566829 132 55 51 0.5662239189330629 3 5472 7 5306 1 3767 6 5719
3658 11.702113501986881 7.8740074684760426 22.095719517259333 102 89 84 0.31599550768995421 3 5420 7 5292 2 4797 1 3479 6 5451
3657 -6.1868966142972415 4.2491781303972829 13.33184171038555 195 110 102 0.81894579141504131 3 5117 7 5290 1 3745 6 5705
3656 12.318751610506178 7.634917704886143 21.631593381999657 0 0 0 0.49320977768090996 3 5412 7 5288 2 4783 1 3726 6 5672
3654 -3.95386595579774 4.307432764910339 25.611820376928623 8 7 8 0.27616992617521385 3 5019 7 5232 1 3400 6 5389
3653 -11.413669009176632 3.0183561754649184 21.207071351153026 126 112 112 0.3986035036943324 3 5395 7 5230 2 4790 1 3416 6 5404
3652 -11.953498414658771 0.73508645696128116 22.533344636041452 175 161 163 0.8271678632434577 3 4983 7 5211 2 4745
3651 -11.043282924801938 0.27521311789026648 22.273090677007385 15 0 0 0.50485419775919393 3 5350 7 5208 1 3372 6 5373
3650 4.5777704356865732 2.0957089950904164 30.115170870336353 102 102 108 2.3714097173387905 3 4968 7 5206 2 3838
3649 6.2878782995955502 1.2311438131174635 26.339199289267633 83 46 45 1.1002674843685987 3 5336 7 5193 1 2984 6 4976
3648 -3.0182408392415532 -1.95793785121979 30.891028378738138 177 152 153 0.10062062396689031 3 5317 7 5172 2 4696 1 3323 6 5322
3647 7.7591634480823686 -2.7340178479138246 28.054056273881947 20 0 1 0.9702973361404934 3 5296 7 5152 2 4666 4 3419 1 3623
3646 7.7591634480823686 -2.7340178479138246 28.054056273881947 20 0 1 0.9702973361404934 3 5295 7 5151 2 4667 4 3418 1 3622
3645 2.1986581578867033 -6.0885667425133052 31.064706051574809 189 165 157 0.25326988797633998 5 4919 7 5145 1 3293 6 5289
3644 13.283372956520237 -2.936583910165075 25.686670647459771 193 183 185 0.86790803210937995 3 4840 7 5143 2 4214 1 3292 6 5295
3643 -12.675666969058776 -9.0923541560645464 25.921232389902432 138 126 131 0.23746971713246817 4 3393 7 5124 2 4649 6 5537
3642 2.5465563679753345 -7.9521806089168541 30.88106819226752 159 133 112 0.22390448594363521 5 4891 7 5122 1 3274 6 5264
3641 -0.67672666342614352 -8.5187909576007872 30.63808975004428 143 146 138 0.3981009819211907 3 5260 7 5120 2 4636
3640 -4.1239198606706351 6.8795225516538965 12.606271502491991 219 123 114 0.77949078053614851 3 5184 7 5065 2 4599
3639 12.542308943463656 10.249417876378502 21.262987740824443 65 56 48 0.4750202228205247 3 4672 7 5056 1 3240
3638 -3.9440407822091323 8.0710655967062053 17.820534484833541 45 23 26 0.40442939069317846 5 5159 7 5055 2 4593
3637 -4.2658830698450299 7.9578055485427805 17.973491469201626 90 46 52 0.4260490210616304 3 5162 7 5050 2 4889
3635 12.865957373562583 8.2383197918412314 20.577886971200076 83 97 79 0.4825286715445406 5 4764 8 4105 7 4989 1 3512 6 5468
3634 4.4079370755653731 9.779892699182767 29.337286398767326 120 95 99 2.2394936445607181 3 5827 4 3833 5 5287 1 3135
3633 -10.885584590220779 3.8642855226754129 20.455997320999959 159 82 76 0.99485237555618355 3 5064 7 4891 1 3705 6 5648
3632 9.9799514060386212 6.4404973128721092 25.922565054313072 68 47 45 0.20827936557471458 5 4669 8 4491 7 4879
3631 -9.8535276608428326 2.8430358388855557 16.462420848212655 9 0 0 0.44244601021628255 3 5051 7 4872 2 4443 1 3443 6 5428
3630 13.082190819168355 5.8362472485841197 23.166304939299941 16 23 7 0.14566800494839713 3 4996 7 4867 1 3403
3629 13.082190819168355 5.8362472485841197 23.166304939299941 16 23 7 0.14566800494839713 3 4997 7 4866 1 3402
3628 -11.444707202136488 3.05676006034692 20.607138501592118 138 117 117 0.44809372507206369 3 5043 7 4863 2 4453 1 3061 6 5066
3627 -11.053984617403696 0.50029082557481763 22.216748069496241 166 141 147 0.38580903025697183 3 4976 7 4834 2 4365 1 3374 6 4997
3626 6.1340797134073179 1.3481385817358889 26.6409906326999 17 20 29 0.64005403454550303 3 4941 7 4813 1 2989 6 4981
3625 -1.733718093113799 -0.07589364235656898 31.112279438642368 170 142 144 0.43721774879092123 3 4945 7 4809 6 4959
3624 -3.3950759495307019 -0.38630706387401692 31.113784460253637 124 105 97 0.19902254652482992 3 4943 7 4808 1 2980 6 4955
3623 1.2974162362944375 -0.26685573738888857 31.626843548586447 159 140 142 0.39490214587638983 3 4927 7 4800 2 4321 1 2966 6 4940
3622 5.0758080852264493 0.30400665458173259 27.236468534360085 60 68 86 0.58864063912088205 3 4920 5 4610 7 4796 2 4306 1 2393
3621 10.375125921892012 0.90531127822774105 28.115663510371743 159 147 148 0.48969072192252106 5 4608 7 4794 6 4943
3620 6.769600267901648 0.080318024876543895 25.699961594577928 49 58 83 0.57263449257111809 3 4385 7 4787 1 2957
3619 -6.7588410941501156 -2.8343343737579803 30.439167586468312 156 132 136 0.17009573560871721 3 4912 7 4781 1 2945 6 4919
3618 -14.492298268823564 -3.8246416329601898 24.857725077353223 92 72 74 0.24407004545337938 3 4910 5 4592 7 4772 6 5319
3617 -14.502058903421409 -4.7155718358901293 24.509003185901641 57 44 44 0.26979783851036254 4 3030 7 4761 1 2927 6 5313
3616 -13.65003368878045 -4.9556043128924507 25.726600466121326 183 166 169 0.22299347921609625 3 4889 7 4759 2 4300 6 5306
3615 5.6937411253108348 -2.4161307055811978 28.029606832910353 86 87 108 0.42386493038566825 3 5298 7 4756 2 4282 1 3304
3614 -2.6977081560549552 -6.2389691098137092 30.413648683522101 206 188 192 0.3013922523271666 5 4557 8 4736 7 4733 2 3713 1 2891 6 5290
3613 7.934515570868454 -4.0340848976046919 27.329100053955504 15 0 0 0.49784965654388591 8 4365 7 4730 1 2888 6 4868
3612 13.282459054735794 -2.6898956699747676 25.300566695901196 56 56 53 0.70039304528416424 3 4245 7 4728 2 3634 1 2887
3611 5.6572088597988586 -6.6898199003316554 31.456145361662795 168 147 141 0.22515724882373991 8 3767 7 4702 2 3651
3610 -12.986242950606632 -8.8871987945380244 25.61840997360548 138 124 129 0.14589853685156939 4 2958 7 4695 2 4239 6 5271
3609 3.0474116598787111 -8.9941978265137692 30.819360947905945 152 138 138 0.19228023373637534 4 2279 7 4673 2 4199 1 2819 6 4799
3608 12.694071698344631 9.7893689355420186 21.069481519938929 3 3 0 0.70237511636366001 3 4657 7 4565 2 4093 1 3225
3606 11.178462606625208 12.207700010772879 30.655386742464657 4 0 0 1.7437593275136636 4 3611 7 4540
3605 13.052379686127715 9.0611282170775063 21.136544217076185 26 27 17 0.22938854910047574 3 3969 7 4520 2 4060 1 2735 6 4713
3604 13.047928624495848 9.0587730313221932 21.127528274720419 26 27 17 0.22987895104569128 3 3968 7 4519 2 4059 1 2734
3603 -0.7480761157581407 7.7337518824826299 22.954736999791177 68 4 18 0.43944235346252836 3 3980 7 4484 1 3158 6 5158
3602 13.098999516344531 7.9515827847993386 20.613989514165283 139 139 127 0.32114454752882271 3 3910 7 4476 2 3988 1 2691 6 4675
3601 12.291979363359467 7.0452226387682115 22.519298546007104 17 19 9 1.0194985928314451 3 2840 7 4411 1 2597 6 4588
3600 12.579830610347246 6.5490323331328151 22.424285821030679 16 17 6 0.38812452288619226 3 2781 7 4393 2 2303
3599 14.14503078562759 6.5770144996124893 22.45567136676614 0 0 0 0.16716850680185971 4 2572 7 4383 1 2555
3598 -10.934486311560489 3.8055249866434422 20.771752569644857 118 68 64 0.61331216614604867 3 4552 7 4375 2 2572
3597 -3.0675323400989196 5.2531038223378488 26.039470442901663 133 90 86 0.33658676563558726 3 4521 7 4373 2 4000 1 3067 6 5063
3596 -9.9145139871875845 3.0298710579273864 16.207350458528538 22 0 0 0.47158484614401291 3 3883 7 4368 2 3378 1 2586 6 4596
3595 7.1840097509348002 6.0363469018697087 27.547555340687275 97 97 97 0.27018591622898447 3 4490 7 4351 1 3046 6 5047
3594 -9.8383447532154378 2.5120391859718421 16.576939037047666 164 21 38 0.41538468488713781 3 3836 7 4337 2 3332
3593 -4.5551481432698449 2.0338453508897518 25.179459156162199 90 82 89 1.8555219203456825 3 3741 7 4297 2 1006
3592 -7.3971981283997801 0.79722716208763478 12.140190528813065 98 43 43 0.9573889389046597 3 3745 7 4286 1 3391
3591 -7.2443878354083138 0.61284296868237798 11.791881758690208 102 45 43 1.004762179233222 3 4457 7 4281 2 4338 1 3020
3590 -3.1057764064386935 0.13974017103458525 31.171679799981177 139 111 109 0.29564232378311078 3 4434 7 4265 2 3834 1 2425 6 4424
3589 -3.1057764064386935 0.13974017103458525 31.171679799981177 139 111 109 0.29564232378311078 3 4433 7 4264 2 3833 1 2424 6 4423
3588 -3.627749079622284 -0.79187434825101422 31.030115063699331 168 140 142 0.20481888797494099 3 4416 7 4250 1 2401 6 4388
3587 -10.513467118462135 -1.2426229613274691 21.527582705819924 123 66 66 0.83847841837529646 3 4430 7 4249 2 3827 4 2510 1 2985 6 5359
3586 8.645990264799746 0.020644757019344484 29.145089187805407 48 6 9 1.1844196454764848 3 5310 7 4232 1 2368 6 4361
3585 6.9715223281971204 -0.25782386967469939 26.118587845586774 116 123 149 0.54150839153519104 3 3593 7 4223 1 2954
3584 2.9279212639957124 -1.5917224939953949 31.683303132079917 167 140 135 0.12832604456646896 8 3906 7 4220 6 4338
3583 2.9279212639957124 -1.5917224939953949 31.683303132079917 167 140 135 0.12832604456646896 8 3907 7 4219 6 4337
3582 3.8026095669536444 -1.5924480912035723 31.768613683421108 160 133 128 0.17769577678411314 8 3170 7 4215 2 3776 1 2355
3581 -0.65354641399794322 -2.9040134295809574 31.002142694638838 179 150 143 0.20743226775147808 5 4015 7 4208 2 3764
3579 1.008636074462824 -2.8973282281056765 31.361819547938165 170 144 134 0.37132846626993726 3 4350 7 4203 2 3758 1 2329
3578 -14.011571598825327 -4.5636361225641719 25.261614000829926 58 44 49 0.27521854320829825 3 4365 7 4197 2 3784 1 2338 6 4314
